# .PCD v0.7 - Point Cloud Data file format
VERSION 0.7
FIELDS x y z intensity
SIZE 4 4 4 4
TYPE F F F F
COUNT 1 1 1 1
WIDTH 1474
HEIGHT 1
VIEWPOINT 0 0 0 1 0 0 0
POINTS 1474
DATA ascii
-0.164 0.19 0.90899998 3102
-0.168 0.19 0.90799999 3106
-0.17299999 0.19 0.91100001 3078
-0.177 0.19 0.91000003 3157
-0.18099999 0.19 0.91000003 3179
-0.185 0.19 0.90899998 3257
-0.189 0.19 0.91000003 3201
-0.19400001 0.19 0.91500002 3147
-0.198 0.19 0.91399997 3141
-0.20200001 0.19 0.91299999 3139
-0.205 0.19 0.90700001 3131
-0.20900001 0.19 0.90600002 3163
-0.213 0.19 0.90499997 3274
-0.21699999 0.19 0.90499997 3285
-0.221 0.19 0.90399998 3235
-0.22499999 0.19 0.90399998 3126
-0.229 0.19 0.90200001 3109
-0.233 0.19 0.90100002 3119
-0.236 0.19 0.898 3188
-0.23999999 0.19 0.89700001 3127
-0.244 0.19 0.89600003 3026
-0.248 0.19 0.89499998 3015
-0.25299999 0.19 0.898 3083
-0.25799999 0.19 0.90100002 3054
-0.264 0.19 0.90799999 3035
-0.26800001 0.19 0.90700001 3100
-0.27200001 0.19 0.90499997 3146
-0.27599999 0.19 0.90499997 3129
-0.28200001 0.19 0.91000003 3117
-0.28600001 0.19 0.90799999 3098
-0.28999999 0.19 0.90700001 3042
-0.294 0.19 0.90700001 3103
-0.29899999 0.19 0.90700001 3018
-0.30399999 0.19 0.91100001 3087
-0.30899999 0.19 0.91100001 3189
-0.31299999 0.19 0.91000003 3233
-0.31799999 0.19 0.91100001 3294
-0.31999999 0.19 0.90499997 3185
-0.32600001 0.19 0.90899998 3078
-0.33000001 0.19 0.90700001 3010
-0.33500001 0.19 0.90899998 3100
-0.33899999 0.19 0.90700001 3084
-0.34400001 0.19 0.90799999 3038
-0.34799999 0.19 0.90799999 3034
-0.352 0.19 0.90600002 3009
-0.35699999 0.19 0.90700001 3011
-0.361 0.19 0.90600002 3027
-0.36500001 0.19 0.90499997 2987
-0.36899999 0.19 0.90399998 3035
-0.373 0.19 0.90200001 3117
-0.377 0.19 0.89999998 3131
-0.389 0.19 0.91600001 3029
-0.39300001 0.19 0.91500002 3048
-0.39300001 0.19 0.90600002 3014
-0.39700001 0.19 0.903 3068
-0.40099999 0.19 0.90200001 3068
-0.405 0.19 0.89899999 3063
-0.40900001 0.19 0.898 3054
-0.414 0.19 0.89899999 3096
-0.41999999 0.19 0.89999998 3071
-0.426 0.19 0.90499997 3060
-0.433 0.19 0.90899998 3062
-0.44 0.19 0.91299999 3087
-0.44400001 0.19 0.91100001 3171
-0.44800001 0.19 0.91000003 3145
-0.45199999 0.19 0.90799999 3052
-0.456 0.19 0.90600002 3043
-0.46000001 0.19 0.90399998 2945
-0.47 0.19 0.91299999 2992
-0.47400001 0.19 0.91100001 3069
-0.479 0.19 0.91000003 3062
-0.48300001 0.19 0.90799999 3023
-0.48699999 0.19 0.90799999 2995
-0.49900001 0.19 0.91900003 2920
-0.505 0.19 0.921 2977
-0.509 0.19 0.91900003 2942
-0.51300001 0.19 0.91600001 2952
-0.51700002 0.19 0.91399997 2936
-0.52100003 0.19 0.912 2986
-0.52999997 0.19 0.91799998 3100
-0.53500003 0.19 0.917 3105
-0.53899997 0.19 0.91500002 3034
-0.542 0.19 0.912 3087
-0.546 0.19 0.91000003 3011
-0.55500001 0.19 0.91399997 3012
-0.55900002 0.19 0.91299999 2965
-0.56400001 0.19 0.912 3002
-0.574 0.19 0.92000002 2948
-0.579 0.19 0.91799998 2933
-0.583 0.19 0.91500002 2925
-0.58999997 0.19 0.917 2977
-0.59399998 0.19 0.91399997 3051
-0.59799999 0.19 0.912 3035
-0.60299999 0.19 0.91100001 3018
-0.60900003 0.19 0.912 2941
-0.61299998 0.19 0.90899998 2946
-0.61699998 0.19 0.90700001 2967
-0.62099999 0.19 0.90399998 3036
-0.62699997 0.19 0.90399998 3120
-0.63800001 0.19 0.912 3111
-0.64200002 0.19 0.90899998 3038
-0.64700001 0.19 0.90700001 2870
-0.653 0.19 0.90799999 2908
-0.66299999 0.19 0.912 2942
-0.66799998 0.19 0.912 2934
-0.67299998 0.19 0.91000003 2906
-0.68300003 0.19 0.91500002 2928
-0.68900001 0.19 0.91399997 2972
-0.69300002 0.19 0.91100001 2956
-0.69700003 0.19 0.90799999 2943
-0.704 0.19 0.90899998 2949
-0.708 0.19 0.90600002 2974
-0.71100003 0.19 0.903 3000
-0.72000003 0.19 0.90499997 2915
-0.72500002 0.19 0.903 2906
-0.73100001 0.19 0.903 2839
-0.74000001 0.19 0.90600002 2883
-0.74800003 0.19 0.90799999 2869
-0.755 0.19 0.90799999 2875
-0.759 0.19 0.90499997 2874
-0.76700002 0.19 0.90600002 2812
-0.77600002 0.19 0.90799999 2834
-0.78200001 0.19 0.90700001 2903
-0.79299998 0.19 0.91299999 2894
-0.79900002 0.19 0.91100001 2915
-0.80299997 0.19 0.90700001 2900
-0.80699998 0.19 0.90399998 2872
-0.81199998 0.19 0.90200001 2882
-0.82700002 0.19 0.91100001 2954
-0.83700001 0.19 0.91399997 2933
-0.84100002 0.19 0.91000003 2846
-0.847 0.19 0.90799999 2832
-0.85000002 0.19 0.90399998 2837
-0.85699999 0.19 0.903 2903
-0.86500001 0.19 0.903 2841
-0.86900002 0.19 0.89999998 2864
-0.87900001 0.19 0.90200001 2833
-0.88499999 0.19 0.90100002 2866
-0.89300001 0.19 0.90100002 2902
-0.90399998 0.19 0.90399998 2778
-0.91100001 0.19 0.903 2777
-0.91600001 0.19 0.89999998 2810
-0.93099999 0.19 0.90700001 2788
-0.935 0.19 0.903 2778
-0.94099998 0.19 0.90100002 2853
-0.95099998 0.19 0.903 2891
-0.95499998 0.19 0.898 2905
-0.963 0.19 0.898 2870
-0.96700001 0.19 0.89399999 2814
-0.97899997 0.19 0.89700001 2827
-0.98500001 0.19 0.89499998 2807
-1.001 0.19 0.90100002 2681
-1.0039999 0.19 0.89600003 2745
-1.017 0.19 0.89999998 2745
-1.024 0.19 0.898 2805
-1.029 0.19 0.89399999 2775
-1.046 0.19 0.90100002 2723
-1.053 0.19 0.89899999 2683
-1.0599999 0.19 0.89700001 2667
-1.0700001 0.19 0.89700001 2690
-1.096 0.19 0.91100001 2752
-1.104 0.19 0.91000003 2695
-1.109 0.19 0.90600002 2722
-1.118 0.19 0.90499997 2715
-1.126 0.19 0.903 2715
-1.133 0.19 0.90200001 2716
-1.1390001 0.19 0.898 2701
-1.145 0.19 0.89499998 2698
-1.158 0.19 0.89600003 2695
-1.173 0.19 0.89999998 2706
-1.177 0.19 0.89499998 2681
-1.188 0.19 0.89499998 2715
-1.198 0.19 0.89499998 2702
-1.207 0.19 0.89300001 2681
-1.223 0.19 0.89700001 2781
-1.229 0.19 0.89300001 2714
-1.2359999 0.19 0.889 2559
-1.252 0.19 0.89300001 2668
-1.26 0.19 0.88999999 2669
-1.265 0.19 0.88599998 2676
-1.285 0.19 0.89099997 2645
-1.2970001 0.19 0.89200002 2667
-1.3150001 0.19 0.89499998 2625
-1.327 0.19 0.89499998 2651
-1.332 0.19 0.88999999 2674
-1.337 0.19 0.88499999 2646
-1.349 0.19 0.884 2671
-1.374 0.19 0.89200002 2658
-1.38 0.19 0.88700002 2643
-1.392 0.19 0.88700002 2619
-1.408 0.19 0.88800001 2641
-1.432 0.19 0.89499998 2649
-1.438 0.19 0.88999999 2586
-1.4529999 0.19 0.88999999 2522
-1.469 0.19 0.89099997 2568
-1.473 0.19 0.88499999 2618
-1.492 0.19 0.88800001 2614
-1.508 0.19 0.88800001 2592
-1.5190001 0.19 0.88599998 2568
-1.531 0.19 0.884 2588
-1.541 0.19 0.88 2664
-1.563 0.19 0.884 2635
-1.567 0.19 0.87800002 2565
-1.589 0.19 0.88 2536
-1.62 0.19 0.88800001 2555
-1.631 0.19 0.88499999 2542
-1.647 0.19 0.88499999 2531
-1.6670001 0.19 0.88599998 2501
-1.675 0.19 0.88099998 2583
-1.696 0.19 0.88300002 2575
-1.7079999 0.19 0.88 2493
-1.719 0.19 0.87599999 2510
-1.739 0.19 0.87599999 2516
-1.758 0.19 0.87599999 2571
-1.789 0.19 0.88200003 2494
-1.799 0.19 0.87699997 2449
-1.8200001 0.19 0.87800002 2540
-1.8430001 0.19 0.87900001 2578
-1.862 0.19 0.87800002 2474
-1.8839999 0.19 0.87800002 2504
-1.9170001 0.19 0.884 2507
-1.929 0.19 0.87900001 2552
-1.956 0.19 0.88099998 2604
-1.9630001 0.19 0.87400001 2588
-1.983 0.19 0.87199998 2544
-1.999 0.19 0.86900002 2518
-2.0179999 0.19 0.86699998 2499
-2.0480001 0.19 0.86900002 2504
-2.0699999 0.19 0.86799997 2486
-2.102 0.19 0.87 2510
-2.112 0.19 0.86400002 2530
-2.1389999 0.19 0.86400002 2499
-2.175 0.19 0.86699998 2478
-2.2179999 0.19 0.87300003 2459
-2.224 0.19 0.86500001 2401
-2.26 0.19 0.86699998 2411
-2.2820001 0.19 0.86400002 2447
-2.3069999 0.19 0.86199999 2425
-2.329 0.19 0.85900003 2508
-2.3329999 0.19 0.84899998 2560
-2.336 0.19 0.83899999 2512
-2.335 0.19 0.82700002 2471
-2.3299999 0.19 0.81400001 2365
-2.3310001 0.19 0.80199999 2341
-2.335 0.19 0.792 2378
-2.3310001 0.19 0.77999997 2390
-2.335 0.19 0.76999998 2399
-2.332 0.19 0.75800002 2420
-2.3269999 0.19 0.745 2358
-2.3299999 0.19 0.73400003 2134
-2.3429999 0.19 0.727 2406
-2.346 0.19 0.71700001 2054
-2.3759999 0.19 0.71499997 1834
-2.437 0.19 0.72100002 1996
-2.5780001 0.19 0.75099999 2383
-2.674 0.19 0.76599997 2348
-2.717 0.19 0.76599997 2253
-2.7460001 0.19 0.76099998 2214
-2.813 0.19 0.76599997 2177
-2.859 0.19 0.76599997 2327
-2.891 0.19 0.76099998 2347
-2.915 0.19 0.75300002 2377
-2.9430001 0.19 0.74699998 2389
-2.994 0.19 0.74599999 2357
-3.0639999 0.19 0.74900001 2233
-3.1400001 0.19 0.75400001 2268
-3.1760001 0.19 0.74699998 2295
-3.2379999 0.19 0.74699998 2302
-3.2620001 0.19 0.73799998 2212
-3.3440001 0.19 0.741 1868
-3.355 0.19 0.72799999 1540
-3.428 0.19 0.72799999 1676
2.809 0.19499999 0.597 2695
2.806 0.19499999 0.60900003 2647
2.803 0.19499999 0.62099999 2671
2.8039999 0.19499999 0.634 2631
2.8010001 0.19499999 0.64600003 2619
2.7980001 0.19499999 0.65799999 2640
2.803 0.19499999 0.67299998 2677
2.822 0.19499999 0.69 2732
2.8269999 0.19499999 0.704 2685
2.9130001 0.19499999 0.73900002 2672
2.9430001 0.19499999 0.76099998 2651
2.9389999 0.19499999 0.773 2672
2.9360001 0.19499999 0.78600001 2618
2.9260001 0.19499999 0.79699999 2523
2.915 0.19499999 0.80800003 2538
2.9119999 0.19499999 0.82099998 2520
2.908 0.19499999 0.83399999 2651
2.9260001 0.19499999 0.852 3057
3.0480001 0.19499999 0.90200001 3069
3.2839999 0.19499999 0.98799998 2551
3.365 0.19499999 1.028 2267
3.3599999 0.19499999 1.043 2128
3.3559999 0.19499999 1.058 2161
3.332 0.19499999 1.066 2328
3.2980001 0.19499999 1.071 2362
3.2119999 0.19499999 1.059 2391
2.9530001 0.19499999 0.98799998 2367
2.7690001 0.19499999 0.94 1587
2.7579999 0.19499999 0.949 2199
2.753 0.19499999 0.96100003 2442
2.7379999 0.19499999 0.96899998 2450
2.734 0.19499999 0.98100001 2420
2.7360001 0.19499999 0.995 2365
2.734 0.19499999 1.008 2389
2.73 0.19499999 1.02 2394
2.7249999 0.19499999 1.0319999 2317
2.7179999 0.19499999 1.043 2070
2.6719999 0.19499999 1.039 1992
2.625 0.19499999 1.034 1947
2.5999999 0.19499999 1.0369999 1935
2.5510001 0.19499999 1.03 1987
2.5250001 0.19499999 1.033 1955
2.4790001 0.19499999 1.027 1894
2.461 0.19499999 1.0319999 1969
2.4289999 0.19499999 1.031 1996
2.398 0.19499999 1.03 2084
2.381 0.19499999 1.035 2087
2.345 0.19499999 1.031 2089
2.303 0.19499999 1.025 2089
2.2880001 0.19499999 1.03 2157
2.2679999 0.19499999 1.033 2129
2.22 0.19499999 1.023 2100
2.1819999 0.19499999 1.017 2211
2.1689999 0.19499999 1.023 2235
2.1210001 0.19499999 1.012 2156
2.105 0.19499999 1.015 2204
2.0610001 0.19499999 1.005 2267
2.033 0.19499999 1.002 2252
2.026 0.19499999 1.01 2298
1.998 0.19499999 1.007 2311
1.971 0.19499999 1.0039999 2315
1.9450001 0.19499999 1.001 2280
1.92 0.19499999 0.99900001 2349
1.91 0.19499999 1.005 2396
1.875 0.19499999 0.99699998 2339
1.858 0.19499999 0.99800003 2390
1.8430001 0.19499999 1.001 2400
1.816 0.19499999 0.99599999 2385
1.799 0.19499999 0.99699998 2452
1.779 0.19499999 0.99599999 2495
1.773 0.19499999 1.003 2468
1.749 0.19499999 0.99900001 2406
1.728 0.19499999 0.99800003 2462
1.712 0.19499999 0.99800003 2450
1.691 0.19499999 0.99599999 2433
1.65 0.19499999 0.98100001 2478
1.6440001 0.19499999 0.98799998 2448
1.626 0.19499999 0.98699999 2428
1.591 0.19499999 0.97500002 2459
1.587 0.19499999 0.98199999 2507
1.579 0.19499999 0.98699999 2517
1.553 0.19499999 0.98000002 2510
1.534 0.19499999 0.977 2525
1.5140001 0.19499999 0.97399998 2524
1.5039999 0.19499999 0.977 2532
1.4910001 0.19499999 0.97799999 2556
1.4809999 0.19499999 0.98000002 2547
1.465 0.19499999 0.97899997 2529
1.446 0.19499999 0.97500002 2550
1.426 0.19499999 0.97100002 2561
1.4119999 0.19499999 0.97000003 2507
1.4 0.19499999 0.97100002 2528
1.3890001 0.19499999 0.972 2594
1.385 0.19499999 0.97799999 2575
1.363 0.19499999 0.972 2592
1.342 0.19499999 0.96600002 2614
1.329 0.19499999 0.96499997 2604
1.322 0.19499999 0.96899998 2627
1.309 0.19499999 0.96799999 2615
1.3049999 0.19499999 0.97399998 2629
1.285 0.19499999 0.96799999 2659
1.277 0.19499999 0.97100002 2647
1.253 0.19499999 0.96100003 2624
1.242 0.19499999 0.96100003 2649
1.2309999 0.19499999 0.96200001 2625
1.221 0.19499999 0.96200001 2619
1.209 0.19499999 0.96100003 2624
1.194 0.19499999 0.958 2611
1.173 0.19499999 0.94999999 2676
1.1619999 0.19499999 0.949 2712
1.155 0.19499999 0.95200002 2673
1.1440001 0.19499999 0.95200002 2694
1.1390001 0.19499999 0.95599997 2722
1.132 0.19499999 0.958 2703
1.113 0.19499999 0.95099998 2677
1.1059999 0.19499999 0.95300001 2706
1.0930001 0.19499999 0.94999999 2775
1.077 0.19499999 0.94400001 2707
1.0650001 0.19499999 0.94199997 2730
1.0599999 0.19499999 0.94599998 2797
1.053 0.19499999 0.94800001 2778
1.046 0.19499999 0.94999999 2793
1.0319999 0.19499999 0.94599998 2760
1.0190001 0.19499999 0.94199997 2812
1.011 0.19499999 0.94300002 2811
1.005 0.19499999 0.94499999 2763
0.99000001 0.19499999 0.94 2787
0.986 0.19499999 0.94300002 2858
0.98000002 0.19499999 0.94599998 2811
0.96399999 0.19499999 0.93900001 2742
0.95300001 0.19499999 0.93699998 2825
0.949 0.19499999 0.94099998 2859
0.94099998 0.19499999 0.94099998 2826
0.935 0.19499999 0.94300002 2871
0.91600001 0.19499999 0.93199998 2909
0.90899998 0.19499999 0.93400002 2849
0.90499997 0.19499999 0.93800002 2806
0.898 0.19499999 0.93900001 2920
0.89399999 0.19499999 0.94199997 2936
0.87699997 0.19499999 0.93199998 2743
0.87199998 0.19499999 0.93599999 2834
0.866 0.19499999 0.93699998 2895
0.86000001 0.19499999 0.93900001 2914
0.847 0.19499999 0.93199998 2841
0.84100002 0.19499999 0.93400002 2855
0.83700001 0.19499999 0.93699998 2831
0.83200002 0.19499999 0.94099998 2831
0.82300001 0.19499999 0.93900001 2836
0.81400001 0.19499999 0.93699998 2890
0.80599999 0.19499999 0.935 2927
0.79699999 0.19499999 0.93300003 2895
0.79299998 0.19499999 0.93699998 2936
0.787 0.19499999 0.93800002 2911
0.77499998 0.19499999 0.93199998 2999
0.76999998 0.19499999 0.93400002 3037
0.76599997 0.19499999 0.93699998 3094
0.75800002 0.19499999 0.93699998 2972
0.75400001 0.19499999 0.93900001 2827
0.75 0.19499999 0.94300002 2861
0.745 0.19499999 0.94499999 2879
0.72500002 0.19499999 0.92799997 2904
0.72000003 0.19499999 0.93000001 2986
0.71499997 0.19499999 0.93199998 3064
0.70200002 0.19499999 0.92400002 2954
0.69599998 0.19499999 0.92400002 2948
0.69099998 0.19499999 0.926 2862
0.68400002 0.19499999 0.92400002 2852
0.68000001 0.19499999 0.92699999 2918
0.67299998 0.19499999 0.92699999 3065
0.66799998 0.19499999 0.92900002 3027
0.65799999 0.19499999 0.92299998 2974
0.653 0.19499999 0.92500001 2999
0.64899999 0.19499999 0.92799997 3045
0.64399999 0.19499999 0.92900002 2965
0.63999999 0.19499999 0.93199998 2936
0.63599998 0.19499999 0.93400002 2952
0.62699997 0.19499999 0.93000001 3008
0.62199998 0.19499999 0.93099999 3019
0.61000001 0.19499999 0.92199999 3032
0.60500002 0.19499999 0.92400002 2966
0.59500003 0.19499999 0.917 2956
0.58999997 0.19499999 0.917 2994
0.583 0.19499999 0.91500002 3008
0.57599998 0.19499999 0.91299999 2893
0.57200003 0.19499999 0.91500002 2994
0.56800002 0.19499999 0.91799998 3059
0.56400001 0.19499999 0.92000002 3085
0.56 0.19499999 0.92299998 3023
0.55299997 0.19499999 0.921 3076
0.54900002 0.19499999 0.92299998 3072
0.54400003 0.19499999 0.92400002 3065
0.537 0.19499999 0.92000002 3009
0.52999997 0.19499999 0.91900003 3155
0.52200001 0.19499999 0.91399997 3039
0.51800001 0.19499999 0.91600001 3116
0.51300001 0.19499999 0.91600001 3129
0.50400001 0.19499999 0.90899998 3079
0.50099999 0.19499999 0.91299999 3075
0.49700001 0.19499999 0.91500002 3000
0.49000001 0.19499999 0.91299999 2980
0.48899999 0.19499999 0.92000002 3049
0.48500001 0.19499999 0.92199999 3083
0.47799999 0.19499999 0.91900003 3067
0.46900001 0.19499999 0.91100001 3046
0.465 0.19499999 0.91299999 3013
0.46000001 0.19499999 0.91399997 3092
0.456 0.19499999 0.91500002 3103
0.45100001 0.19499999 0.91399997 3131
0.44600001 0.19499999 0.91500002 3096
0.442 0.19499999 0.91600001 3095
0.43799999 0.19499999 0.91900003 3135
0.43399999 0.19499999 0.92000002 3099
0.42899999 0.19499999 0.921 3073
0.42500001 0.19499999 0.92299998 3049
0.41499999 0.19499999 0.91000003 3058
0.41 0.19499999 0.91100001 3098
0.40599999 0.19499999 0.91299999 3165
0.403 0.19499999 0.91600001 3154
0.39899999 0.19499999 0.91900003 3050
0.39500001 0.19499999 0.921 3038
0.391 0.19499999 0.92299998 3065
0.384 0.19499999 0.917 3178
0.38 0.19499999 0.91900003 3183
0.37599999 0.19499999 0.92000002 3215
0.37200001 0.19499999 0.92199999 3196
0.366 0.19499999 0.91900003 3238
0.36199999 0.19499999 0.921 3143
0.35499999 0.19499999 0.91500002 3134
0.35100001 0.19499999 0.91600001 3135
0.34799999 0.19499999 0.92000002 3133
0.34299999 0.19499999 0.917 3102
0.34 0.19499999 0.92299998 3087
0.336 0.19499999 0.92400002 3056
0.32699999 0.19499999 0.91100001 3086
0.322 0.19499999 0.91100001 3069
0.31799999 0.19499999 0.912 3085
0.31200001 0.19499999 0.90600002 3086
0.30700001 0.19499999 0.90499997 3055
0.303 0.19499999 0.90499997 3171
0.29699999 0.19499999 0.903 3201
0.29499999 0.19499999 0.90799999 3218
0.28999999 0.19499999 0.90600002 3103
0.28600001 0.19499999 0.90700001 3148
0.28200001 0.19499999 0.90899998 3153
0.278 0.19499999 0.91000003 3128
0.27200001 0.19499999 0.903 3129
0.26800001 0.19499999 0.90499997 3182
0.266 0.19499999 0.91299999 3261
0.26199999 0.19499999 0.91399997 3141
0.25799999 0.19499999 0.91600001 3155
0.25400001 0.19499999 0.917 3121
0.25 0.19499999 0.917 3125
0.243 0.19499999 0.90799999 3104
0.23899999 0.19499999 0.90899998 3126
0.235 0.19499999 0.91100001 3150
0.23100001 0.19499999 0.91000003 3237
0.227 0.19499999 0.91100001 3289
0.223 0.19499999 0.912 3246
0.21799999 0.19499999 0.91000003 3331
0.214 0.19499999 0.91000003 3284
0.20900001 0.19499999 0.90899998 3267
0.205 0.19499999 0.90899998 3281
0.20100001 0.19499999 0.90600002 3206
0.197 0.19499999 0.90700001 3215
0.192 0.19499999 0.90499997 3173
0.18799999 0.19499999 0.90600002 3165
0.184 0.19499999 0.90600002 3144
0.18000001 0.19499999 0.90700001 3123
0.175 0.19499999 0.90499997 3041
0.171 0.19499999 0.903 3066
0.167 0.19499999 0.90399998 3119
0.163 0.19499999 0.90499997 3184
0.15899999 0.19499999 0.90600002 3209
0.154 0.19499999 0.89999998 3230
0.152 0.19499999 0.91100001 3198
0.148 0.19499999 0.91100001 3188
0.14300001 0.19499999 0.90600002 3158
0.139 0.19499999 0.90700001 3154
0.13500001 0.19499999 0.90700001 3138
0.131 0.19499999 0.90799999 3169
0.127 0.19499999 0.90899998 3204
0.123 0.19499999 0.90899998 3241
0.119 0.19499999 0.90600002 3190
0.114 0.19499999 0.90200001 3185
0.11 0.19499999 0.898 3182
0.106 0.19499999 0.903 3171
0.103 0.19499999 0.90399998 3139
0.098999999 0.19499999 0.90399998 3214
0.094999999 0.19499999 0.90600002 3211
0.090999998 0.19499999 0.91000003 3206
0.086999997 0.19499999 0.91299999 3177
0.083999999 0.19499999 0.91600001 3208
0.079999998 0.19499999 0.91600001 3186
0.075999998 0.19499999 0.91399997 3180
0.071000002 0.19499999 0.90899998 3149
0.067000002 0.19499999 0.90700001 3270
0.063000001 0.19499999 0.90700001 3239
0.059 0.19499999 0.90600002 3203
0.055 0.19499999 0.90600002 3206
0.050999999 0.19499999 0.90600002 3182
0.046999998 0.19499999 0.90799999 3181
0.043000001 0.19499999 0.90799999 3140
0.039000001 0.19499999 0.90899998 3094
0.035 0.19499999 0.90899998 3066
0.030999999 0.19499999 0.90399998 3137
0.027000001 0.19499999 0.903 3149
0.023 0.19499999 0.89700001 3102
0.018999999 0.19499999 0.89700001 3196
0.015 0.19499999 0.89700001 3237
0.011 0.19499999 0.89700001 3300
0.0070000002 0.19499999 0.90100002 3293
0.003 0.19499999 0.90100002 3271
-0 0.19499999 0.90200001 3293
-0.003 0.19499999 0.903 3176
-0.0070000002 0.19499999 0.90499997 3126
-0.011 0.19499999 0.90499997 3252
-0.015 0.19499999 0.90700001 3327
-0.018999999 0.19499999 0.90499997 3275
-0.023 0.19499999 0.903 3202
-0.027000001 0.19499999 0.903 3129
-0.030999999 0.19499999 0.903 3108
-0.035 0.19499999 0.903 3217
-0.039000001 0.19499999 0.91000003 3255
-0.043000001 0.19499999 0.90899998 3258
-0.046999998 0.19499999 0.91100001 3195
-0.050999999 0.19499999 0.91100001 3155
-0.055 0.19499999 0.91100001 3202
-0.059 0.19499999 0.90700001 3119
-0.063000001 0.19499999 0.90600002 3093
-0.067000002 0.19499999 0.90600002 3064
-0.071000002 0.19499999 0.90600002 3040
-0.075000003 0.19499999 0.90200001 3095
-0.078000002 0.19499999 0.90200001 3091
-0.082000002 0.19499999 0.90200001 3088
-0.086000003 0.19499999 0.90100002 3095
-0.090000004 0.19499999 0.898 3186
-0.094999999 0.19499999 0.90399998 3204
-0.097999997 0.19499999 0.90200001 3267
-0.103 0.19499999 0.90600002 3188
-0.107 0.19499999 0.90499997 3144
-0.111 0.19499999 0.90799999 3142
-0.115 0.19499999 0.91000003 3201
-0.119 0.19499999 0.91000003 3240
-0.124 0.19499999 0.91299999 3164
-0.127 0.19499999 0.90899998 3177
-0.131 0.19499999 0.90799999 3138
-0.13500001 0.19499999 0.90700001 3116
-0.139 0.19499999 0.90600002 3187
-0.14300001 0.19499999 0.90499997 3160
-0.147 0.19499999 0.90499997 3157
-0.15099999 0.19499999 0.90399998 3150
-0.155 0.19499999 0.90200001 3156
-0.15899999 0.19499999 0.903 3066
-0.163 0.19499999 0.90499997 3093
-0.168 0.19499999 0.90799999 3019
-0.17200001 0.19499999 0.90600002 3102
-0.176 0.19499999 0.90700001 3138
-0.182 0.19499999 0.91600001 3108
-0.184 0.19499999 0.90499997 3063
-0.18799999 0.19499999 0.90399998 3125
-0.193 0.19499999 0.91100001 3150
-0.197 0.19499999 0.91000003 3157
-0.199 0.19499999 0.90200001 3120
-0.20299999 0.19499999 0.90100002 3100
-0.207 0.19499999 0.89999998 3165
-0.211 0.19499999 0.898 3251
-0.215 0.19499999 0.898 3226
-0.22 0.19499999 0.90100002 3193
-0.227 0.19499999 0.91100001 3188
-0.23100001 0.19499999 0.91000003 3237
-0.235 0.19499999 0.90899998 3261
-0.23899999 0.19499999 0.90799999 3181
-0.242 0.19499999 0.90499997 3038
-0.24600001 0.19499999 0.90399998 3071
-0.249 0.19499999 0.89999998 3053
-0.25299999 0.19499999 0.89899999 3120
-0.257 0.19499999 0.898 3120
-0.26300001 0.19499999 0.90200001 3067
-0.26499999 0.19499999 0.89600003 3072
-0.271 0.19499999 0.90200001 3093
-0.27500001 0.19499999 0.90100002 3071
-0.27900001 0.19499999 0.89999998 3009
-0.285 0.19499999 0.90600002 3072
-0.289 0.19499999 0.90399998 3128
-0.29300001 0.19499999 0.90200001 3060
-0.29800001 0.19499999 0.90399998 3079
-0.303 0.19499999 0.90499997 3007
-0.30700001 0.19499999 0.90700001 3105
-0.31400001 0.19499999 0.91299999 3125
-0.31799999 0.19499999 0.91100001 3155
-0.322 0.19499999 0.91000003 3175
-0.324 0.19499999 0.90399998 3141
-0.32800001 0.19499999 0.903 3117
-0.33199999 0.19499999 0.90100002 3068
-0.34 0.19499999 0.91100001 2978
-0.347 0.19499999 0.91600001 3105
-0.35100001 0.19499999 0.91399997 3083
-0.35499999 0.19499999 0.91399997 3070
-0.359 0.19499999 0.912 3042
-0.36199999 0.19499999 0.90899998 3112
-0.366 0.19499999 0.90700001 3074
-0.37 0.19499999 0.90600002 3122
-0.37400001 0.19499999 0.90399998 3031
-0.38 0.19499999 0.90799999 3067
-0.384 0.19499999 0.90600002 3048
-0.38800001 0.19499999 0.90499997 3061
-0.39199999 0.19499999 0.903 3043
-0.39700001 0.19499999 0.90200001 3072
-0.40200001 0.19499999 0.903 3073
-0.40900001 0.19499999 0.90899998 3088
-0.414 0.19499999 0.90899998 2969
-0.419 0.19499999 0.90899998 2993
-0.42500001 0.19499999 0.912 3087
-0.43000001 0.19499999 0.91299999 3149
-0.43399999 0.19499999 0.91100001 3143
-0.43799999 0.19499999 0.90899998 3033
-0.44299999 0.19499999 0.90799999 2999
-0.44800001 0.19499999 0.91000003 3024
-0.45199999 0.19499999 0.90799999 3034
-0.45699999 0.19499999 0.90700001 3093
-0.461 0.19499999 0.90600002 3096
-0.46599999 0.19499999 0.90499997 3071
-0.47400001 0.19499999 0.91000003 3069
-0.47799999 0.19499999 0.90899998 3179
-0.48199999 0.19499999 0.90700001 3208
-0.486 0.19499999 0.90499997 3132
-0.49399999 0.19499999 0.91100001 3034
-0.498 0.19499999 0.90899998 2970
-0.505 0.19499999 0.91100001 2956
-0.509 0.19499999 0.91000003 2971
-0.51300001 0.19499999 0.90700001 2954
-0.51899999 0.19499999 0.90899998 2956
-0.52600002 0.19499999 0.91100001 3049
-0.53200001 0.19499999 0.91299999 3103
-0.53399998 0.19499999 0.90700001 3076
-0.54299998 0.19499999 0.91299999 3018
-0.542 0.19499999 0.90200001 3051
-0.551 0.19499999 0.90799999 3071
-0.55199999 0.19499999 0.90200001 3042
-0.55900002 0.19499999 0.903 3032
-0.56699997 0.19499999 0.90700001 3029
-0.57099998 0.19499999 0.90499997 2965
-0.57499999 0.19499999 0.90399998 2941
-0.57999998 0.19499999 0.90200001 2979
-0.58600003 0.19499999 0.90200001 3029
-0.59799999 0.19499999 0.912 2974
-0.602 0.19499999 0.90899998 3005
-0.60699999 0.19499999 0.90899998 2971
-0.61199999 0.19499999 0.90799999 2947
-0.61900002 0.19499999 0.90899998 2925
-0.62400001 0.19499999 0.90899998 2925
-0.63300002 0.19499999 0.912 2981
-0.64300001 0.19499999 0.91900003 3067
-0.64700001 0.19499999 0.91600001 2993
-0.65200001 0.19499999 0.91500002 2893
-0.65600002 0.19499999 0.912 2934
-0.66000003 0.19499999 0.90899998 2886
-0.66399997 0.19499999 0.90600002 2959
-0.67500001 0.19499999 0.91299999 2942
-0.67500001 0.19499999 0.90399998 2910
-0.68300003 0.19499999 0.90700001 2957
-0.69400001 0.19499999 0.91299999 2899
-0.699 0.19499999 0.91100001 2933
-0.70300001 0.19499999 0.90799999 2941
-0.71200001 0.19499999 0.912 2935
-0.71899998 0.19499999 0.912 2925
-0.72399998 0.19499999 0.91000003 2900
-0.73000002 0.19499999 0.91000003 2838
-0.736 0.19499999 0.91000003 2846
-0.74299997 0.19499999 0.90899998 2839
-0.74800003 0.19499999 0.90700001 2953
-0.755 0.19499999 0.90799999 3009
-0.76099998 0.19499999 0.90600002 2920
-0.76700002 0.19499999 0.90600002 2902
-0.77499998 0.19499999 0.90700001 2848
-0.77999997 0.19499999 0.90499997 2800
-0.78500003 0.19499999 0.90399998 2825
-0.78899997 0.19499999 0.89999998 2849
-0.80299997 0.19499999 0.90700001 2871
-0.81 0.19499999 0.90700001 2880
-0.815 0.19499999 0.90499997 2883
-0.81900001 0.19499999 0.90200001 2930
-0.82800001 0.19499999 0.90399998 2904
-0.83200002 0.19499999 0.90100002 2781
-0.84200001 0.19499999 0.903 2781
-0.84899998 0.19499999 0.903 2823
-0.85500002 0.19499999 0.90100002 2884
-0.861 0.19499999 0.89999998 2878
-0.86500001 0.19499999 0.89600003 2861
-0.884 0.19499999 0.90799999 2824
-0.89200002 0.19499999 0.90700001 2897
-0.89899999 0.19499999 0.90600002 2898
-0.903 0.19499999 0.903 2889
-0.91500002 0.19499999 0.90700001 2831
-0.92199999 0.19499999 0.90600002 2791
-0.926 0.19499999 0.90200001 2836
-0.93400002 0.19499999 0.90200001 2874
-0.93900001 0.19499999 0.89899999 2925
-0.94999999 0.19499999 0.90200001 2847
-0.95599997 0.19499999 0.89899999 2727
-0.96899998 0.19499999 0.90399998 2738
-0.977 0.19499999 0.903 2837
-0.98199999 0.19499999 0.89999998 2788
-0.98699999 0.19499999 0.89600003 2758
-1.001 0.19499999 0.90100002 2771
-1.011 0.19499999 0.90200001 2760
-1.027 0.19499999 0.90899998 2790
-1.031 0.19499999 0.90399998 2778
-1.035 0.19499999 0.89999998 2732
-1.039 0.19499999 0.89499998 2747
-1.059 0.19499999 0.90399998 2712
-1.064 0.19499999 0.90100002 2716
-1.072 0.19499999 0.89899999 2709
-1.08 0.19499999 0.89899999 2687
-1.105 0.19499999 0.91100001 2692
-1.109 0.19499999 0.90600002 2644
-1.119 0.19499999 0.90600002 2689
-1.13 0.19499999 0.90700001 2787
-1.135 0.19499999 0.903 2744
-1.14 0.19499999 0.898 2731
-1.148 0.19499999 0.89700001 2747
-1.155 0.19499999 0.89399999 2711
-1.164 0.19499999 0.89300001 2678
-1.177 0.19499999 0.89499998 2693
-1.181 0.19499999 0.88999999 2741
-1.193 0.19499999 0.88999999 2699
-1.2 0.19499999 0.88800001 2727
-1.2130001 0.19499999 0.889 2729
-1.223 0.19499999 0.88800001 2684
-1.242 0.19499999 0.89399999 2704
-1.25 0.19499999 0.89099997 2714
-1.255 0.19499999 0.88700002 2731
-1.275 0.19499999 0.89300001 2692
-1.283 0.19499999 0.88999999 2637
-1.2869999 0.19499999 0.884 2582
-1.3049999 0.19499999 0.88800001 2626
-1.312 0.19499999 0.88499999 2695
-1.329 0.19499999 0.88800001 2677
-1.342 0.19499999 0.88800001 2602
-1.352 0.19499999 0.88599998 2647
-1.367 0.19499999 0.88800001 2688
-1.3890001 0.19499999 0.89300001 2703
-1.398 0.19499999 0.88999999 2633
-1.409 0.19499999 0.889 2668
-1.4170001 0.19499999 0.88499999 2710
-1.4220001 0.19499999 0.88 2696
-1.446 0.19499999 0.88599998 2687
-1.473 0.19499999 0.89399999 2601
-1.479 0.19499999 0.88800001 2661
-1.487 0.19499999 0.88499999 2640
-1.502 0.19499999 0.88499999 2659
-1.5089999 0.19499999 0.88 2592
-1.541 0.19499999 0.88999999 2587
-1.5470001 0.19499999 0.884 2613
-1.558 0.19499999 0.88099998 2589
-1.573 0.19499999 0.88099998 2594
-1.594 0.19499999 0.88300002 2612
-1.605 0.19499999 0.88 2602
-1.618 0.19499999 0.87800002 2626
-1.6339999 0.19499999 0.87800002 2617
-1.656 0.19499999 0.88 2634
-1.681 0.19499999 0.884 2631
-1.689 0.19499999 0.87900001 2615
-1.709 0.19499999 0.88 2566
-1.737 0.19499999 0.88499999 2574
-1.752 0.19499999 0.88300002 2578
-1.7640001 0.19499999 0.87900001 2532
-1.79 0.19499999 0.88200003 2562
-1.794 0.19499999 0.875 2518
-1.822 0.19499999 0.87800002 2554
-1.8279999 0.19499999 0.87199998 2614
-1.863 0.19499999 0.87800002 2606
-1.874 0.19499999 0.87300003 2551
-1.896 0.19499999 0.87400001 2518
-1.911 0.19499999 0.87099999 2535
-1.949 0.19499999 0.87800002 2572
-1.96 0.19499999 0.87199998 2552
-1.974 0.19499999 0.86799997 2480
-2.006 0.19499999 0.87199998 2414
-2.026 0.19499999 0.87 2367
-2.0480001 0.19499999 0.86900002 2425
-2.072 0.19499999 0.86799997 2340
-2.108 0.19499999 0.87300003 2336
-2.138 0.19499999 0.875 2357
-2.142 0.19499999 0.86500001 2285
-2.175 0.19499999 0.86699998 2400
-2.197 0.19499999 0.86500001 2403
-2.233 0.19499999 0.86799997 2317
-2.2460001 0.19499999 0.86199999 2377
-2.2820001 0.19499999 0.86400002 2478
-2.3169999 0.19499999 0.866 2466
-2.322 0.19499999 0.85600001 2529
-2.3280001 0.19499999 0.847 2537
-2.3329999 0.19499999 0.83700001 2488
-2.336 0.19499999 0.82700002 2451
-2.3399999 0.19499999 0.81699997 2409
-2.3429999 0.19499999 0.80699998 2368
-2.3410001 0.19499999 0.79400003 2406
-2.336 0.19499999 0.78100002 2441
-2.3310001 0.19499999 0.76800001 2418
-2.3280001 0.19499999 0.75599998 2448
-2.3310001 0.19499999 0.74599999 2294
-2.3340001 0.19499999 0.736 2143
-2.339 0.19499999 0.72600001 2412
-2.3610001 0.19499999 0.72100002 2087
-2.382 0.19499999 0.71700001 1892
-2.405 0.19499999 0.71200001 1891
-2.5639999 0.19499999 0.74699998 2299
-2.665 0.19499999 0.764 2220
-2.721 0.19499999 0.76700002 2236
-2.744 0.19499999 0.76099998 2154
-2.8099999 0.19499999 0.76599997 2146
-2.8369999 0.19499999 0.75999999 2266
-2.9030001 0.19499999 0.764 2339
-2.944 0.19499999 0.76099998 2351
-2.9690001 0.19499999 0.75400001 2311
-3.01 0.19499999 0.75 2299
-3.0510001 0.19499999 0.74599999 2198
-3.1329999 0.19499999 0.75199997 2297
-3.145 0.19499999 0.74000001 2368
-3.177 0.19499999 0.73299998 2376
-3.243 0.19499999 0.73299998 2292
-3.2939999 0.19499999 0.73000002 2012
-3.355 0.19499999 0.72799999 1544
-3.4030001 0.19499999 0.72299999 1586
2.79 0.2 0.59299999 2694
2.7839999 0.2 0.60399997 2768
2.7809999 0.2 0.616 2714
2.7809999 0.2 0.62900001 2700
2.7780001 0.2 0.64099997 2698
2.842 0.2 0.66900003 2657
2.9030001 0.2 0.69700003 2672
2.9319999 0.2 0.71700001 2703
2.9690001 0.2 0.74000001 2895
2.99 0.2 0.759 3059
2.9860001 0.2 0.77200001 2899
2.983 0.2 0.78500003 2590
2.96 0.2 0.79299998 2624
2.924 0.2 0.79699999 2580
2.9200001 0.2 0.80900002 2550
2.9170001 0.2 0.82200003 2581
2.9389999 0.2 0.84200001 2604
2.997 0.2 0.87300003 3093
3.461 0.2 1.025 2497
3.4560001 0.2 1.04 2091
3.4519999 0.2 1.0549999 2264
3.4430001 0.2 1.069 2143
3.3859999 0.2 1.067 2158
3.3510001 0.2 1.072 2204
3.2969999 0.2 1.071 2250
3.2609999 0.2 1.075 2309
3.026 0.2 1.012 2416
2.7679999 0.2 0.93900001 1545
2.7590001 0.2 0.94999999 2127
2.7539999 0.2 0.96200001 2375
2.75 0.2 0.97399998 2485
2.7449999 0.2 0.98500001 2415
2.7409999 0.2 0.99699998 2394
2.7320001 0.2 1.007 2397
2.7249999 0.2 1.0190001 2378
2.72 0.2 1.03 2328
2.7060001 0.2 1.038 2116
2.675 0.2 1.04 2007
2.6370001 0.2 1.039 2016
2.609 0.2 1.04 1976
2.566 0.2 1.036 1970
2.5369999 0.2 1.038 1949
2.4879999 0.2 1.03 1961
2.477 0.2 1.039 2068
2.4289999 0.2 1.031 2035
2.4119999 0.2 1.036 2081
2.3829999 0.2 1.036 2160
2.3369999 0.2 1.028 2189
2.3069999 0.2 1.027 2064
2.283 0.2 1.028 2162
2.25 0.2 1.025 2084
2.2160001 0.2 1.021 2050
2.2019999 0.2 1.026 2082
2.1630001 0.2 1.02 2200
2.132 0.2 1.017 2202
2.1110001 0.2 1.018 2163
2.076 0.2 1.012 2184
2.0539999 0.2 1.013 2299
2.0190001 0.2 1.007 2231
1.993 0.2 1.0039999 2269
1.977 0.2 1.007 2330
1.954 0.2 1.006 2248
1.931 0.2 1.005 2364
1.9119999 0.2 1.006 2412
1.8890001 0.2 1.0039999 2372
1.859 0.2 0.99900001 2385
1.835 0.2 0.99599999 2400
1.814 0.2 0.995 2429
1.801 0.2 0.99800003 2426
1.7970001 0.2 1.006 2449
1.774 0.2 1.0039999 2492
1.758 0.2 1.0039999 2391
1.7180001 0.2 0.99199998 2432
1.7 0.2 0.991 2486
1.689 0.2 0.995 2418
1.656 0.2 0.98500001 2447
1.65 0.2 0.991 2452
1.632 0.2 0.99000001 2444
1.608 0.2 0.98500001 2436
1.601 0.2 0.99000001 2470
1.589 0.2 0.99299997 2517
1.556 0.2 0.98199999 2529
1.536 0.2 0.97799999 2498
1.5190001 0.2 0.977 2478
1.502 0.2 0.97500002 2472
1.4809999 0.2 0.97100002 2481
1.4680001 0.2 0.97100002 2564
1.449 0.2 0.96799999 2525
1.438 0.2 0.97000003 2510
1.429 0.2 0.97299999 2589
1.4220001 0.2 0.977 2579
1.392 0.2 0.96600002 2516
1.375 0.2 0.963 2614
1.369 0.2 0.96700001 2573
1.3609999 0.2 0.97000003 2556
1.3430001 0.2 0.96600002 2559
1.33 0.2 0.96600002 2621
1.3200001 0.2 0.96700001 2681
1.314 0.2 0.972 2619
1.296 0.2 0.96799999 2597
1.275 0.2 0.96100003 2602
1.265 0.2 0.96200001 2670
1.2589999 0.2 0.96600002 2650
1.248 0.2 0.96600002 2652
1.224 0.2 0.95599997 2594
1.214 0.2 0.95700002 2654
1.202 0.2 0.95599997 2694
1.196 0.2 0.95999998 2645
1.182 0.2 0.95700002 2636
1.16 0.2 0.94800001 2689
1.155 0.2 0.95200002 2658
1.15 0.2 0.95700002 2674
1.146 0.2 0.96200001 2714
1.123 0.2 0.95099998 2719
1.117 0.2 0.954 2710
1.1059999 0.2 0.95300001 2663
1.097 0.2 0.95300001 2736
1.081 0.2 0.94800001 2758
1.0700001 0.2 0.94599998 2724
1.064 0.2 0.94999999 2711
1.0549999 0.2 0.94999999 2778
1.046 0.2 0.94999999 2823
1.034 0.2 0.94700003 2793
1.03 0.2 0.95200002 2781
1.0140001 0.2 0.94499999 2780
1.008 0.2 0.94800001 2766
1.002 0.2 0.95099998 2795
0.98799998 0.2 0.94499999 2832
0.98100001 0.2 0.94700003 2834
0.97399998 0.2 0.94800001 2790
0.963 0.2 0.94599998 2791
0.94800001 0.2 0.93900001 2809
0.94300002 0.2 0.94300002 2898
0.93699998 0.2 0.94499999 2882
0.93099999 0.2 0.94700003 2831
0.91399997 0.2 0.93900001 2866
0.90700001 0.2 0.94 2908
0.89499998 0.2 0.935 2871
0.89099997 0.2 0.93900001 2843
0.88300002 0.2 0.93900001 2871
0.87900001 0.2 0.94300002 2830
0.87199998 0.2 0.94400001 2828
0.85900003 0.2 0.93699998 2924
0.847 0.2 0.93300003 2915
0.84200001 0.2 0.935 2973
0.838 0.2 0.93900001 2950
0.83099997 0.2 0.93900001 2888
0.82200003 0.2 0.93800002 2819
0.81800002 0.2 0.94099998 2857
0.79799998 0.2 0.926 2839
0.792 0.2 0.92699999 2849
0.78600001 0.2 0.92799997 2914
0.78200001 0.2 0.93199998 3063
0.778 0.2 0.935 3021
0.773 0.2 0.93800002 2947
0.76700002 0.2 0.93900001 2979
0.76300001 0.2 0.94199997 2945
0.75099999 0.2 0.93599999 2895
0.73799998 0.2 0.92799997 2886
0.73199999 0.2 0.92900002 2866
0.72600001 0.2 0.92900002 2973
0.722 0.2 0.93300003 2978
0.71700001 0.2 0.93400002 2992
0.70599997 0.2 0.92900002 2891
0.69800001 0.2 0.92699999 2936
0.68800002 0.2 0.92199999 2898
0.68199998 0.2 0.92199999 2851
0.67799997 0.2 0.92400002 2982
0.67400002 0.2 0.92699999 2945
0.66500002 0.2 0.92400002 2974
0.66399997 0.2 0.93199998 3039
0.65700001 0.2 0.93000001 2961
0.65200001 0.2 0.93099999 2944
0.64499998 0.2 0.93000001 2918
0.63800001 0.2 0.92799997 2958
0.625 0.2 0.91799998 2979
0.62400001 0.2 0.92500001 2973
0.61699998 0.2 0.92400002 3014
0.61299998 0.2 0.92699999 3059
0.60699999 0.2 0.926 2969
0.60000002 0.2 0.92400002 3028
0.59299999 0.2 0.92299998 3087
0.58700001 0.2 0.921 2985
0.579 0.2 0.91799998 2987
0.574 0.2 0.92000002 3067
0.56999999 0.2 0.92199999 3127
0.56300002 0.2 0.91900003 3071
0.55900002 0.2 0.921 3039
0.55299997 0.2 0.92000002 3108
0.54799998 0.2 0.92199999 3087
0.54400003 0.2 0.92299998 3136
0.53899997 0.2 0.92400002 3098
0.53299999 0.2 0.92400002 3102
0.52399999 0.2 0.91799998 3121
0.51599997 0.2 0.912 3104
0.51200002 0.2 0.91399997 3093
0.50599998 0.2 0.91299999 3131
0.50199997 0.2 0.91500002 3085
0.498 0.2 0.917 3096
0.495 0.2 0.92199999 3164
0.48899999 0.2 0.92000002 3089
0.48500001 0.2 0.92299998 3113
0.47999999 0.2 0.92299998 3076
0.472 0.2 0.917 3115
0.46700001 0.2 0.91600001 3111
0.463 0.2 0.91799998 3093
0.45699999 0.2 0.91799998 3213
0.45300001 0.2 0.92000002 3159
0.44800001 0.2 0.91900003 3101
0.442 0.2 0.91600001 3149
0.43799999 0.2 0.91799998 3123
0.43399999 0.2 0.92000002 3111
0.43000001 0.2 0.92199999 3072
0.42199999 0.2 0.917 3069
0.414 0.2 0.90899998 3151
0.40700001 0.2 0.90399998 3138
0.403 0.2 0.90600002 3140
0.39899999 0.2 0.90700001 3161
0.39500001 0.2 0.90899998 3164
0.391 0.2 0.91100001 3141
0.38800001 0.2 0.91399997 3075
0.384 0.2 0.91600001 3053
0.37900001 0.2 0.91500002 3100
0.37400001 0.2 0.91399997 3070
0.37099999 0.2 0.91799998 3105
0.36300001 0.2 0.91100001 3070
0.359 0.2 0.91100001 3095
0.354 0.2 0.912 3070
0.34900001 0.2 0.91000003 3059
0.34400001 0.2 0.90799999 3041
0.33899999 0.2 0.90700001 3036
0.33500001 0.2 0.90899998 3094
0.33199999 0.2 0.91399997 3130
0.32600001 0.2 0.90899998 3121
0.322 0.2 0.91000003 3121
0.31900001 0.2 0.91500002 3029
0.31400001 0.2 0.91299999 3067
0.30899999 0.2 0.91000003 3145
0.30199999 0.2 0.90399998 3091
0.29800001 0.2 0.90600002 3111
0.294 0.2 0.90600002 3133
0.28999999 0.2 0.90700001 3089
0.28600001 0.2 0.90899998 3190
0.28200001 0.2 0.91000003 3220
0.278 0.2 0.91100001 3141
0.27399999 0.2 0.91100001 3218
0.271 0.2 0.91500002 3183
0.266 0.2 0.91299999 3168
0.259 0.2 0.90399998 3124
0.255 0.2 0.90499997 3138
0.25299999 0.2 0.912 3223
0.248 0.2 0.91000003 3190
0.244 0.2 0.91100001 3133
0.241 0.2 0.91500002 3071
0.236 0.2 0.91299999 3078
0.229 0.2 0.90499997 3060
0.22499999 0.2 0.90399998 3153
0.221 0.2 0.90700001 3233
0.21799999 0.2 0.90799999 3228
0.214 0.2 0.90899998 3212
0.211 0.2 0.91500002 3235
0.207 0.2 0.91600001 3229
0.20100001 0.2 0.90899998 3169
0.197 0.2 0.90799999 3147
0.193 0.2 0.90899998 3212
0.189 0.2 0.90899998 3138
0.185 0.2 0.91000003 3108
0.18099999 0.2 0.912 3096
0.177 0.2 0.91100001 3106
0.17299999 0.2 0.912 3081
0.169 0.2 0.91299999 3049
0.164 0.2 0.91000003 3090
0.15899999 0.2 0.90600002 3125
0.156 0.2 0.91100001 3162
0.15099999 0.2 0.90700001 3114
0.147 0.2 0.90600002 3076
0.14300001 0.2 0.90600002 3044
0.138 0.2 0.90100002 3132
0.134 0.2 0.89999998 3281
0.12899999 0.2 0.89300001 3253
0.125 0.2 0.88999999 3216
0.121 0.2 0.89399999 3161
0.117 0.2 0.89499998 3134
0.113 0.2 0.89499998 3123
0.11 0.2 0.898 3098
0.106 0.2 0.89899999 3121
0.102 0.2 0.89999998 3183
0.097999997 0.2 0.89999998 3204
0.093999997 0.2 0.90100002 3158
0.090000004 0.2 0.89999998 3156
0.086000003 0.2 0.89999998 3133
0.082000002 0.2 0.90100002 3123
0.078000002 0.2 0.90100002 3182
0.074000001 0.2 0.90100002 3161
0.071000002 0.2 0.903 3126
0.067000002 0.2 0.91399997 3144
0.063000001 0.2 0.91399997 3155
0.059 0.2 0.91500002 3150
0.055 0.2 0.90700001 3174
0.050999999 0.2 0.90700001 3129
0.046999998 0.2 0.90700001 3107
0.043000001 0.2 0.90700001 3211
0.039000001 0.2 0.91000003 3129
0.035 0.2 0.91000003 3115
0.030999999 0.2 0.90499997 3192
0.027000001 0.2 0.90399998 3238
0.023 0.2 0.90399998 3254
0.018999999 0.2 0.90399998 3211
0.015 0.2 0.90100002 3098
0.011 0.2 0.90100002 3128
0.0070000002 0.2 0.903 3115
0.003 0.2 0.90600002 3167
-0 0.2 0.90700001 3265
-0.003 0.2 0.90600002 3327
-0.0070000002 0.2 0.90600002 3202
-0.011 0.2 0.90600002 3177
-0.015 0.2 0.903 3271
-0.018999999 0.2 0.903 3342
-0.023 0.2 0.89700001 3264
-0.027000001 0.2 0.89700001 3240
-0.030999999 0.2 0.89899999 3235
-0.035 0.2 0.90499997 3215
-0.039000001 0.2 0.91100001 3170
-0.043000001 0.2 0.91000003 3182
-0.046999998 0.2 0.90799999 3139
-0.050999999 0.2 0.90799999 3191
-0.055 0.2 0.90100002 3174
-0.059 0.2 0.90100002 3189
-0.063000001 0.2 0.90700001 3220
-0.067000002 0.2 0.912 3121
-0.071000002 0.2 0.912 3080
-0.075000003 0.2 0.91100001 3132
-0.079000004 0.2 0.90700001 3142
-0.082000002 0.2 0.898 3154
-0.086000003 0.2 0.89700001 3151
-0.090000004 0.2 0.89700001 3158
-0.093999997 0.2 0.89700001 3175
-0.097999997 0.2 0.90200001 3191
-0.103 0.2 0.90700001 3145
-0.108 0.2 0.91500002 3175
-0.112 0.2 0.91500002 3122
-0.116 0.2 0.91399997 3114
-0.119 0.2 0.90700001 3106
-0.123 0.2 0.90499997 3162
-0.126 0.2 0.898 3126
-0.13 0.2 0.89700001 3079
-0.134 0.2 0.898 3162
-0.138 0.2 0.89700001 3154
-0.142 0.2 0.89999998 3119
-0.147 0.2 0.90499997 3118
-0.152 0.2 0.90799999 3071
-0.155 0.2 0.90700001 3122
-0.15899999 0.2 0.90700001 3069
-0.163 0.2 0.90600002 3070
-0.168 0.2 0.91000003 3043
-0.17200001 0.2 0.91000003 3167
-0.177 0.2 0.91000003 3150
-0.18099999 0.2 0.91000003 3173
-0.184 0.2 0.90799999 3141
-0.186 0.2 0.89499998 3118
-0.19 0.2 0.89499998 3144
-0.19400001 0.2 0.89399999 3090
-0.20100001 0.2 0.90600002 3047
-0.205 0.2 0.90600002 3098
-0.20900001 0.2 0.90600002 3094
-0.213 0.2 0.90499997 3037
-0.21699999 0.2 0.90600002 3025
-0.221 0.2 0.90700001 3045
-0.227 0.2 0.91100001 3011
-0.23100001 0.2 0.91000003 3118
-0.235 0.2 0.91100001 3144
-0.23899999 0.2 0.90799999 3165
-0.243 0.2 0.90899998 3212
-0.24699999 0.2 0.90799999 3131
-0.25099999 0.2 0.90700001 3069
-0.255 0.2 0.90499997 3050
-0.259 0.2 0.90499997 3012
-0.26300001 0.2 0.90399998 3030
-0.26800001 0.2 0.90600002 2963
-0.27200001 0.2 0.90399998 2978
-0.27599999 0.2 0.90499997 3009
-0.28099999 0.2 0.90600002 3083
-0.285 0.2 0.90499997 3125
-0.29100001 0.2 0.90899998 3028
-0.29300001 0.2 0.90200001 3059
-0.29699999 0.2 0.90100002 3082
-0.303 0.2 0.90499997 3008
-0.30599999 0.2 0.90399998 3082
-0.31299999 0.2 0.91000003 3097
-0.317 0.2 0.91000003 3145
-0.32100001 0.2 0.90799999 3139
-0.32499999 0.2 0.90700001 3183
-0.33000001 0.2 0.90600002 3296
-0.333 0.2 0.90399998 3230
-0.338 0.2 0.90399998 3189
-0.34200001 0.2 0.903 3105
-0.34599999 0.2 0.90100002 3146
-0.35100001 0.2 0.903 3066
-0.35699999 0.2 0.90700001 3021
-0.36199999 0.2 0.90899998 3106
-0.366 0.2 0.90700001 3117
-0.37 0.2 0.90600002 3064
-0.375 0.2 0.90499997 3037
-0.37799999 0.2 0.903 3062
-0.382 0.2 0.90200001 3071
-0.391 0.2 0.91000003 3046
-0.39500001 0.2 0.90899998 3048
-0.39899999 0.2 0.90700001 3150
-0.403 0.2 0.90600002 3226
-0.40700001 0.2 0.90499997 3191
-0.412 0.2 0.90399998 3157
-0.419 0.2 0.91000003 3050
-0.426 0.2 0.91399997 2995
-0.43000001 0.2 0.912 2988
-0.43399999 0.2 0.91000003 3035
-0.442 0.2 0.917 3013
-0.44 0.2 0.903 3026
-0.44400001 0.2 0.90100002 3094
-0.45100001 0.2 0.90399998 3049
-0.46200001 0.2 0.917 3068
-0.465 0.2 0.91299999 3081
-0.47 0.2 0.91299999 3077
-0.47299999 0.2 0.90899998 3048
-0.479 0.2 0.91000003 3072
-0.48300001 0.2 0.90799999 3064
-0.48699999 0.2 0.90600002 3082
-0.49000001 0.2 0.90399998 3049
-0.498 0.2 0.90799999 3003
-0.50599998 0.2 0.91299999 3025
-0.50700003 0.2 0.90499997 3017
-0.51499999 0.2 0.91000003 2947
-0.523 0.2 0.91500002 3008
-0.52600002 0.2 0.912 2972
-0.52999997 0.2 0.90899998 3075
-0.53399998 0.2 0.90799999 3082
-0.54000002 0.2 0.90899998 3008
-0.54400003 0.2 0.90600002 2957
-0.55000001 0.2 0.90700001 2984
-0.55400002 0.2 0.90399998 3066
-0.56199998 0.2 0.90899998 3042
-0.56800002 0.2 0.90899998 2989
-0.57200003 0.2 0.90700001 3037
-0.57700002 0.2 0.90499997 3025
-0.58399999 0.2 0.90799999 2999
-0.58899999 0.2 0.90700001 3020
-0.59399998 0.2 0.90600002 3022
-0.60299999 0.2 0.91100001 3041
-0.61299998 0.2 0.917 3005
-0.61699998 0.2 0.91600001 2904
-0.62199998 0.2 0.91399997 2922
-0.62699997 0.2 0.912 2953
-0.63099998 0.2 0.91000003 3044
-0.63599998 0.2 0.90899998 3002
-0.63999999 0.2 0.90600002 2939
-0.64399999 0.2 0.903 2918
-0.653 0.2 0.90799999 3065
-0.66100001 0.2 0.91000003 3023
-0.66900003 0.2 0.912 3070
-0.67500001 0.2 0.912 3055
-0.68099999 0.2 0.912 3060
-0.68699998 0.2 0.912 3056
-0.69400001 0.2 0.91299999 2955
-0.69800001 0.2 0.90899998 2930
-0.704 0.2 0.90899998 2856
-0.708 0.2 0.90700001 2892
-0.71200001 0.2 0.903 2903
-0.71700001 0.2 0.90200001 2867
-0.722 0.2 0.89999998 2865
-0.72799999 0.2 0.89899999 2856
-0.73699999 0.2 0.90200001 2875
-0.745 0.2 0.90399998 2917
-0.759 0.2 0.912 2854
-0.76200002 0.2 0.90899998 2856
-0.76999998 0.2 0.90899998 2880
-0.77499998 0.2 0.90700001 2806
-0.77899998 0.2 0.90399998 2798
-0.78299999 0.2 0.90100002 2864
-0.78899997 0.2 0.89999998 2855
-0.80500001 0.2 0.91000003 2838
-0.81300002 0.2 0.91100001 2864
-0.81699997 0.2 0.90799999 2912
-0.824 0.2 0.90799999 2924
-0.82999998 0.2 0.90600002 2863
-0.83600003 0.2 0.90399998 2883
-0.83999997 0.2 0.90100002 2926
-0.84799999 0.2 0.90200001 2856
-0.86500001 0.2 0.91100001 2832
-0.87099999 0.2 0.91000003 2869
-0.875 0.2 0.90700001 2855
-0.88200003 0.2 0.90499997 2869
-0.88599998 0.2 0.90200001 2924
-0.89099997 0.2 0.89899999 2914
-0.89999998 0.2 0.89999998 2863
-0.90399998 0.2 0.89600003 2811
-0.921 0.2 0.90499997 2793
-0.926 0.2 0.90200001 2772
-0.93199998 0.2 0.89999998 2865
-0.94300002 0.2 0.903 2945
-0.94700003 0.2 0.898 2896
-0.96100003 0.2 0.90399998 2759
-0.96700001 0.2 0.90200001 2734
-0.97399998 0.2 0.89999998 2804
-0.98199999 0.2 0.89899999 2809
-0.98699999 0.2 0.89600003 2786
-1.001 0.2 0.90100002 2730
-1.011 0.2 0.90200001 2709
-1.016 0.2 0.89899999 2709
-1.02 0.2 0.89499998 2747
-1.027 0.2 0.89300001 2783
-1.043 0.2 0.89899999 2777
-1.0549999 0.2 0.90100002 2775
-1.063 0.2 0.89999998 2761
-1.0779999 0.2 0.90499997 2745
-1.0829999 0.2 0.89999998 2692
-1.087 0.2 0.89600003 2676
-1.103 0.2 0.90100002 2718
-1.112 0.2 0.90100002 2764
-1.123 0.2 0.90100002 2700
-1.132 0.2 0.89999998 2666
-1.141 0.2 0.89999998 2708
-1.149 0.2 0.898 2694
-1.161 0.2 0.89899999 2696
-1.1670001 0.2 0.89499998 2683
-1.183 0.2 0.89999998 2740
-1.1900001 0.2 0.89700001 2693
-1.1950001 0.2 0.89200002 2743
-1.204 0.2 0.89099997 2712
-1.222 0.2 0.89600003 2691
-1.232 0.2 0.89499998 2685
-1.243 0.2 0.89499998 2688
-1.255 0.2 0.89499998 2718
-1.266 0.2 0.89499998 2794
-1.271 0.2 0.88999999 2659
-1.279 0.2 0.88700002 2560
-1.293 0.2 0.88800001 2604
-1.301 0.2 0.88499999 2616
-1.323 0.2 0.89200002 2644
-1.3279999 0.2 0.88700002 2689
-1.345 0.2 0.88999999 2670
-1.358 0.2 0.88999999 2622
-1.3710001 0.2 0.88999999 2675
-1.376 0.2 0.88499999 2664
-1.403 0.2 0.89399999 2703
-1.414 0.2 0.89200002 2686
-1.419 0.2 0.88700002 2724
-1.429 0.2 0.884 2659
-1.451 0.2 0.889 2679
-1.457 0.2 0.884 2646
-1.462 0.2 0.87800002 2682
-1.49 0.2 0.88599998 2658
-1.503 0.2 0.88499999 2677
-1.511 0.2 0.88099998 2651
-1.52 0.2 0.87800002 2634
-1.541 0.2 0.88 2626
-1.561 0.2 0.88300002 2633
-1.568 0.2 0.87800002 2612
-1.577 0.2 0.87400001 2603
-1.605 0.2 0.88 2631
-1.623 0.2 0.88099998 2637
-1.6440001 0.2 0.88300002 2626
-1.6569999 0.2 0.88099998 2590
-1.675 0.2 0.88099998 2601
-1.687 0.2 0.87800002 2564
-1.698 0.2 0.87400001 2528
-1.724 0.2 0.87800002 2581
-1.7460001 0.2 0.88 2493
-1.763 0.2 0.87900001 2545
-1.789 0.2 0.88200003 2521
-1.798 0.2 0.87699997 2506
-1.823 0.2 0.87900001 2574
-1.8430001 0.2 0.87900001 2571
-1.864 0.2 0.87900001 2593
-1.885 0.2 0.87900001 2525
-1.905 0.2 0.87800002 2464
-1.925 0.2 0.87699997 2504
-1.9299999 0.2 0.86900002 2489
-1.965 0.2 0.875 2465
